   .241172800E-01 -.915504110E+00 -.190194330E+00 -.324182270E+00 -.145061930E-02
   .936446090E-02  .497225840E-01 -.918962810E-02  .827162430E-03  .246301130E-04
  -.213460060E-03  .103533310E-01 -.122988840E-01 -.320305170E-02  .237560250E-02
  -.373960490E-04  .113314500E-04  .159097220E-03 -.385034500E-03  .203397660E-02
  -.724062290E-02  .672752920E-03 -.518270210E-04 -.223949540E-03  .167451000E-04
   .789663230E-06 -.102735380E-04  .218418980E-04  .291504520E-03  .142693590E-03
   .496331550E-02  .162166370E-02  .648261280E-04  .276446590E-04  .168670730E-06
  -.134997150E-05 -.181857120E-07 -.146851690E-07  .260879970E-05  .474650670E-05
  -.836350640E-04  .387442180E-03 -.151701540E-03  .208401540E-03 -.120299540E-03
   .795730350E-07 -.205022750E-06 -.741341850E-07  .372228040E-07  .148781520E-08
   .159774090E-09 -.147939170E-06  .574386940E-06  .704028770E-05 -.592815450E-04
  -.502583260E-04  .103125650E-02 -.354439160E-03 -.690485560E-05  .663046030E-05
   .668532490E-06 -.487459250E-07 -.132111300E-07 -.228071470E-08  .820607750E-10
  -.828012340E-09  .424986560E-08 -.225108270E-07 -.112861490E-06  .308423670E-05
   .834538060E-05 -.116739960E-03 -.123667310E-02 -.184753050E-03  .123081990E-04
   .176114760E-05  .457746410E-07 -.349385370E-07 -.245946920E-08 -.212576870E-09
   .182266870E-10 -.355387280E-11 -.780686850E-11 -.212894820E-10  .178024650E-08
   .141871610E-07 -.169022790E-06 -.136598450E-05  .159388500E-04  .861800910E-04
  -.139660550E-03  .420855400E-04  .163345650E-04  .960606240E-07 -.128974180E-06
  -.307499350E-08 -.299736720E-09  .955973780E-10 -.280092760E-11 -.176387410E-11
   .249133070E-12 -.264565950E-12 -.747496910E-11 -.273237560E-10 -.145513490E-09
   .901102170E-08  .445440090E-07 -.836708930E-06 -.761622460E-05  .563526830E-04
  -.427089080E-03  .172127120E-03  .198612960E-05 -.948031320E-06 -.464941900E-07
   .278630110E-08  .578094220E-09  .636502140E-10 -.841722280E-12 -.190637220E-11
 -.992554120E-13
   .132985180E-01  .313934490E+00  .225242340E-02 -.949242680E+00  .363918450E-02
  -.676306900E-02  .287905760E-01 -.398375710E-01 -.245695890E-02 -.553429600E-03
   .168918120E-02 -.137653210E-02 -.422462700E-01 -.584986300E-03  .453728980E-02
   .451456200E-03 -.321860350E-05 -.248287750E-03 -.639075040E-03 -.299505920E-03
   .101027140E-01  .385448480E-02 -.139487460E-02  .115262020E-03 -.417841050E-04
   .206458770E-05 -.656480140E-05  .765649230E-05 -.132697680E-03  .319393400E-04
   .667748920E-02 -.792036870E-03 -.125841760E-03  .403749930E-04 -.161065010E-04
   .107822090E-05 -.182990120E-06  .775100680E-06 -.655329780E-06  .152032470E-05
  -.817134000E-04  .161161680E-03  .235447100E-02  .105484880E-02 -.143817590E-03
  -.414797190E-05  .670905830E-05  .124238270E-05  .851194670E-08  .289992230E-08
  -.701483010E-08 -.145636290E-06  .161884930E-06  .246525830E-05 -.124253230E-04
  -.133050830E-03  .178727810E-02 -.464273400E-04 -.905479010E-04  .248869150E-05
   .122977990E-05 -.926644170E-07 -.811912660E-08 -.566737410E-09 -.239886390E-10
   .393175670E-09  .119402470E-07 -.173197980E-07 -.167956640E-06  .614274080E-06
   .491076290E-05 -.501113050E-04 -.286752310E-03 -.545146510E-03  .978777590E-05
   .786605590E-05  .107534740E-06 -.858112010E-07 -.411059150E-08 -.264042850E-10
   .163124780E-09 -.169871620E-11 -.252670270E-10 -.100775280E-09  .173957920E-08
   .104180910E-07 -.765467360E-07 -.156060820E-05  .179342810E-05  .849824610E-04
  -.270282130E-02  .529601220E-05  .481545120E-04  .412282790E-06 -.384085590E-06
  -.114345200E-07  .226772690E-08  .301246170E-09  .157389180E-11 -.792836660E-11
   .334531180E-12  .107412740E-12 -.573120570E-11 -.934689370E-10 -.276960210E-09
   .924160360E-08  .819992280E-07 -.245230240E-06 -.116368740E-04  .358034280E-04
  -.466116320E-03  .452189600E-03  .798128540E-05 -.318464370E-05 -.879649020E-07
   .104118500E-07  .107148320E-08 -.150772600E-11 -.124617850E-10 -.107472040E-11
  .115367010E-12
  -.267441770E-01 -.164957090E+00  .985453630E+00  .952727070E-02  .128823480E-02
   .214367970E-01  .479250860E-01  .164442180E-01 -.231738070E-01  .786415170E-03
  -.201057380E-02 -.219131680E-02 -.530073840E-02 -.168551910E-01 -.314428140E-02
   .256373410E-02 -.209965070E-03  .179548820E-03 -.246842490E-04 -.144245470E-02
   .382560310E-02 -.272538430E-02 -.102665280E-02  .546906520E-04 -.105788920E-04
  -.150710850E-05 -.173856030E-04  .219678870E-04  .580063680E-03  .686800010E-03
  -.114274310E-01 -.346979300E-02  .550353860E-03  .710097920E-04 -.499212550E-05
  -.874136280E-05  .291068980E-06  .570709270E-06 -.537218200E-06 -.548428600E-04
   .381771900E-04  .583307110E-03 -.176013560E-01  .345169250E-02  .607649300E-03
  -.634333570E-04 -.110034970E-04  .348783230E-06  .866404270E-06 -.175060290E-07
  -.763941670E-07  .309654660E-06  .383436600E-05 -.560473980E-05 -.146072440E-03
  -.423569180E-04  .592694410E-02  .382652090E-02 -.171130110E-03 -.471954510E-04
   .302057000E-06  .485476880E-06  .471859680E-07 -.915453350E-09  .263793660E-09
   .164219190E-08 -.234096360E-07 -.126839030E-06  .554612020E-06  .120078280E-04
  -.385619560E-04 -.452972860E-03  .136702950E-01 -.721239270E-03 -.320643950E-03
   .264343550E-05  .276334390E-05  .166369270E-06 -.118172400E-07 -.537357710E-08
  -.427391390E-09 -.698634290E-11  .694220600E-10  .904156700E-09  .179905250E-08
  -.734166930E-07 -.679860100E-06  .304038210E-05  .550388990E-04  .198342530E-03
  -.380239910E-02 -.228872230E-02  .236876200E-05  .178541000E-04  .562049410E-06
  -.665391700E-07 -.115529800E-07 -.710544070E-09  .214349200E-09  .381976010E-10
  -.159528040E-11 -.444261750E-11 -.371852070E-10  .231639100E-09  .405817880E-08
   .150358720E-07 -.131498580E-06 -.420615340E-05  .128323940E-04  .230550510E-03
  -.909622950E-02 -.144352600E-03  .133452110E-03  .283809290E-05 -.613209680E-06
  -.543170210E-07 -.116330490E-08  .514168140E-09  .646362290E-10 -.208265070E-11
 -.130038180E-11
  -.472893270E-02 -.572586760E-02  .166159380E-02  .150816950E-02  .677439970E-03
  -.174993200E-02 -.104062270E-01  .835238130E-03  .460346140E-03 -.314060130E-04
   .134547340E-03 -.350195320E-02  .322138750E-02  .180088640E-02 -.855415020E-03
   .129346800E-04 -.731758010E-05 -.534623460E-04 -.497387040E-04 -.175056070E-02
   .217263200E-02 -.352241920E-04  .155719840E-03  .132356670E-03 -.936396370E-05
   .141479280E-06  .445454320E-05  .210421640E-07 -.141863860E-03 -.261908970E-03
  -.252575580E-02 -.742259700E-03 -.127414940E-03 -.248493460E-04  .154588950E-07
   .112982060E-05 -.588143480E-07  .208506220E-06 -.176760130E-05  .174528530E-05
   .170850420E-04 -.528702440E-03 -.184869410E-03 -.386454480E-03  .851138650E-04
   .314671920E-05  .102395590E-05  .164034290E-07 -.195829920E-07  .277268150E-08
  -.726349070E-08  .499037180E-07 -.573000410E-06 -.286791160E-05  .669160790E-04
   .174399390E-04 -.166360890E-02  .997029560E-04 -.748658480E-05 -.247473650E-05
  -.168309270E-06  .286040860E-07  .677927640E-08 -.906005260E-09 -.196743790E-09
   .185176490E-08  .295740190E-08 -.484178350E-08 -.275762140E-06 -.278313620E-05
   .241578820E-05  .900270870E-04  .136292830E-03  .202650270E-03  .156249660E-04
   .709057020E-06 -.252386230E-06 -.282670040E-08  .981232460E-10  .397922200E-09
   .241106920E-09  .110778710E-11 -.397519610E-10 -.205544880E-09  .109571590E-08
   .142113720E-07  .817040190E-07 -.476453860E-06 -.115790790E-04  .713738960E-05
  -.984624470E-03  .918355650E-04 -.120424050E-04 -.103123960E-05 -.337977290E-07
  -.385339880E-08  .209129140E-08  .289853760E-09  .345078280E-10 -.941777830E-11
   .140998600E-12  .185077560E-11  .553897740E-11 -.172610560E-09 -.109116200E-08
   .626022010E-08  .993010130E-07  .124859710E-06 -.667846850E-05 -.602377140E-04
   .883846090E-03  .762379980E-05 -.129489420E-04 -.987728400E-06  .124114520E-07
   .717486990E-08  .643619130E-09 -.932417150E-10 -.207106940E-10  .132312630E-11
  .591421690E-12
  -.557990080E-03  .365612730E-02  .325669860E-04 -.314096100E-02 -.773186190E-03
   .190359530E-02 -.100732370E-01  .770130330E-02  .202362790E-02  .181996370E-03
  -.757137260E-03  .482345710E-03  .141439680E-01  .168001700E-02 -.153924730E-02
  -.367729580E-03  .572477150E-05  .147701920E-03  .132969880E-03  .657866440E-03
  -.413843780E-02 -.867042950E-03  .492501520E-03 -.685561520E-04  .280123190E-04
  -.167853450E-05  .553370450E-05  .754442850E-06  .183371010E-04 -.350076670E-03
  -.203646380E-02  .542667000E-03  .991059150E-05 -.218411950E-04  .117883650E-04
  -.274343880E-06  .158653900E-06 -.766054320E-06 -.148290120E-06  .523844780E-05
   .651148950E-04  .606229170E-04 -.151477780E-02 -.100385800E-02  .863450140E-04
   .118086550E-04 -.421302420E-05 -.107630170E-05 -.905422160E-07 -.133412960E-08
   .199366860E-07  .154939580E-06 -.261844860E-06 -.296823770E-05  .138759370E-04
   .530225530E-04 -.177728860E-02 -.189970550E-03  .759808290E-04  .279562650E-05
  -.747739670E-06 -.268424510E-07 -.479257650E-08  .560747860E-08 -.170858240E-09
  -.450507010E-09 -.898258520E-08  .115884130E-07 -.374556080E-08 -.155954900E-07
  -.628653230E-05  .104948900E-03 -.960640780E-03  .387181270E-03  .249928900E-04
  -.553712490E-05 -.488460700E-06  .249427910E-07  .121783500E-07  .950778020E-09
  -.385520190E-09  .204272130E-10  .190205760E-11 -.199495120E-09 -.133947370E-08
  -.222790130E-09  .782696240E-07  .402614420E-07  .978583540E-05 -.470894890E-04
   .110056970E-02  .268567180E-03 -.533045150E-05 -.224120350E-05  .348822150E-07
   .266446390E-07  .141945620E-08 -.459386470E-09 -.583504850E-10  .982614220E-11
  -.122183500E-11  .284768540E-11  .153676010E-10  .597404240E-10 -.610787450E-09
  -.471425640E-08  .271960150E-07 -.148352320E-06 -.421223300E-05  .209806510E-04
   .150906620E-02  .190915460E-04 -.231960230E-04 -.454562540E-06  .978716640E-07
   .171695590E-07 -.136865750E-08 -.163982830E-09  .899025200E-11  .222436040E-11
  .371677370E-12
   .490079430E-02 -.234737710E-02 -.824104520E-02 -.205400490E-01 -.120378150E-02
  -.422392040E-02 -.134606160E-01  .752570130E-02  .281257230E-02  .395815610E-04
   .485957270E-03 -.549097500E-03  .248815890E-01  .901847370E-02 -.179219420E-02
  -.130579300E-02  .117077240E-03  .732473380E-04  .389108850E-03 -.733816510E-03
   .955090310E-02 -.100685090E-01 -.422067270E-03  .370191250E-03  .475323940E-04
  -.973020830E-06 -.127752800E-04 -.662052810E-04  .176787980E-03  .140581380E-02
  -.292979360E-01 -.590388120E-02  .131163930E-02  .203332850E-03 -.263177490E-04
   .369344460E-06  .322335840E-06  .170346140E-05 -.368535540E-06 -.653894310E-04
  -.212143200E-03  .127951800E-02 -.218531320E-01  .735251320E-02  .102319710E-02
  -.924885160E-04 -.167529930E-04 -.238689000E-06 -.539715170E-06 -.648916060E-08
   .547311630E-08  .265767700E-06  .678340690E-05  .130714700E-04 -.308650260E-03
  -.147631350E-02  .269634870E-01  .835406650E-02 -.657073350E-03 -.132307760E-03
   .248735810E-05  .118264970E-05  .884257740E-07 -.490708650E-08  .163768440E-08
  -.562622150E-08 -.557210790E-07 -.437123560E-06  .464761960E-06  .506861890E-04
   .950321800E-04 -.147506550E-02  .412639140E-01 -.471389770E-02 -.961115950E-03
   .301001430E-04  .870453750E-05  .358374530E-06 -.328959850E-07 -.756368850E-08
  -.119147130E-08  .397635430E-10  .564879380E-09  .198830080E-08  .296497030E-08
  -.131927800E-06 -.376022380E-05 -.483753380E-05  .262694020E-03  .121710720E-02
  -.153867850E-01 -.929562990E-02  .184749620E-03  .801709820E-04  .151661450E-05
  -.372637990E-06 -.393843160E-07  .332293330E-10  .136951620E-09  .100084000E-10
  -.106360870E-13 -.335073870E-10 -.103816070E-09  .115769630E-08  .157187340E-07
   .146765580E-06 -.145669110E-06 -.315024910E-04 -.352399430E-04  .159267980E-02
  -.491764240E-01  .968976900E-03  .725425950E-03  .576017760E-05 -.385396300E-05
  -.267409450E-06  .404741640E-08  .228322320E-08  .143542590E-09  .852669840E-11
  .154535440E-11
   .631474830E-03  .145331420E-02 -.447533840E-03  .532153120E-04 -.265540340E-03
   .302825240E-03  .212668110E-02  .219280140E-03 -.258257780E-03  .221258430E-04
  -.629197850E-04  .581029140E-03 -.368081230E-03 -.623148850E-03  .158043470E-03
  -.426198770E-05  .351778370E-07  .157066890E-04  .382837350E-04  .512907430E-03
  -.599643260E-03 -.124274370E-03 -.575403820E-04 -.346516700E-04  .281119240E-05
  -.196575950E-06 -.141704120E-05 -.205993560E-05  .421009140E-04  .905147260E-04
   .643707050E-03  .170320370E-03  .662843840E-04  .985950580E-05  .594333930E-07
  -.386275870E-06  .448009590E-07 -.977122370E-07  .520550780E-06 -.151392800E-05
   .152264080E-05  .222202070E-03 -.172013180E-03  .178580270E-03 -.263348700E-04
  -.154127950E-05 -.596543310E-06 -.103889820E-07  .462992400E-08 -.273456840E-08
   .555028050E-08  .129221040E-07  .186150580E-06  .618890170E-07 -.243552750E-04
  -.967868910E-05  .542457580E-03  .226433050E-04  .775797900E-05  .300903500E-06
  -.825704350E-07 -.124401600E-07 -.690416050E-10  .146541610E-08  .134313320E-09
  -.110973940E-08 -.354001340E-08  .147111660E-07  .202031170E-06  .666572750E-06
  -.810607360E-05 -.494560940E-05  .418718380E-05 -.541312110E-04 -.114203280E-04
  -.128872520E-05  .116692100E-06  .981642960E-08  .120303110E-08 -.162195810E-09
  -.215017940E-09  .170107250E-11  .338475840E-10  .128750680E-09 -.149359140E-08
  -.142003550E-07  .127179600E-07  .757670880E-06  .239860650E-05 -.496610230E-04
   .876048780E-03 -.695005470E-04  .139126540E-05  .600926640E-06  .680051280E-07
   .609721370E-08 -.126841130E-08 -.256862670E-09 -.289359640E-10  .974418260E-11
  -.330343050E-12 -.123202190E-11  .684832320E-12  .139413720E-09  .647477340E-09
  -.864702760E-08 -.654383560E-07  .415330670E-06  .633689120E-05  .308436030E-04
  -.627279810E-03 -.745518550E-04  .647225700E-05  .104285460E-05  .221960340E-07
  -.471698080E-08 -.695954150E-09  .279830360E-10  .143278620E-10  .104076940E-12
 -.426460120E-12
  -.719247690E-03 -.765053030E-03 -.404119880E-03  .256563030E-02  .460198500E-04
  -.412829270E-03  .323862560E-02 -.825143500E-03 -.929217790E-03 -.172942060E-04
   .176495530E-03 -.906168510E-04 -.232904820E-02 -.102568490E-02  .220207440E-03
   .147862640E-03 -.407028930E-05 -.402744170E-04 -.176663970E-04 -.214587370E-03
   .524177260E-03 -.138555300E-03 -.796480580E-04  .334001580E-04 -.101409950E-04
   .686961500E-06 -.205337200E-05 -.850121000E-06  .132740940E-05  .162061940E-03
  -.159152240E-03 -.933707840E-04  .316555280E-04  .565195160E-05 -.444789580E-05
  -.500968090E-07 -.543235330E-07  .291286440E-06  .106276770E-06 -.313340190E-05
  -.303601730E-04 -.590817360E-04  .538904100E-03  .481024180E-03 -.286548950E-04
  -.648793200E-05  .114230410E-05  .356998900E-06  .658586860E-07 -.682235990E-09
  -.948823640E-08 -.580986370E-07  .779505570E-07  .135511470E-05 -.162862990E-05
   .312708090E-04  .775345200E-03  .952529400E-04 -.259394010E-04 -.229026820E-05
   .133230960E-06  .385347520E-07  .753144220E-08 -.370819040E-08  .158683380E-09
   .688654130E-10  .229063180E-08  .338318300E-08  .617201770E-07 -.452591870E-06
  -.111450870E-05 -.371304510E-04  .661047770E-03 -.637263510E-04 -.165708350E-04
   .102295660E-05  .274193100E-06  .136588550E-07 -.693919270E-08 -.657055780E-09
   .200791910E-09 -.144068670E-10  .145488280E-10  .192994220E-09 -.767691240E-10
  -.469736260E-08  .111612160E-07  .392765140E-06 -.829085140E-05  .262683590E-06
   .137488210E-03 -.149304510E-03 -.127229310E-04  .120422510E-05  .116978830E-06
  -.115475470E-07 -.202830630E-08  .204581790E-09  .404352410E-10 -.329313870E-11
   .828012470E-12 -.214657450E-11 -.860914650E-11  .528319720E-11  .487980160E-09
  -.243081040E-08 -.404760420E-07  .515255650E-06  .410809940E-05 -.478332220E-04
  -.625245930E-03 -.163138470E-03  .930260430E-05  .136905290E-05 -.161496900E-07
  -.167901270E-07  .403062670E-09  .123116400E-09 -.647056870E-12 -.102317610E-11
 -.329591620E-12
  -.515255540E-04 -.453260680E-03  .640507730E-02  .325994460E-02  .790416590E-03
  -.572029170E-04  .410284060E-02 -.841063490E-02 -.281132080E-03 -.149781500E-03
   .320498280E-03  .696006590E-03 -.194599120E-01 -.484665710E-02  .207770830E-02
   .514911310E-03 -.318142510E-04 -.132504560E-03 -.204911410E-03  .125304310E-02
  -.118149760E-01  .884565350E-02  .893734380E-03 -.297649860E-03 -.437515640E-04
   .232199040E-05  .172362640E-04  .255277030E-04 -.372851380E-03 -.961840240E-03
   .254937110E-01  .684458680E-02 -.112732180E-02 -.198332280E-03  .177515740E-04
   .325899060E-05 -.427210870E-06 -.147806450E-05  .198156440E-05  .707716950E-04
   .784540490E-04 -.141888660E-02  .261773030E-01 -.639898680E-02 -.110346520E-02
   .784474320E-04  .174467270E-04  .455672760E-06  .661003440E-07  .163382400E-07
   .147387210E-07 -.521178340E-06 -.647023510E-05 -.959054980E-07  .314909420E-03
   .948519320E-03 -.217990650E-01 -.868403060E-02  .478743540E-03  .124022820E-03
  -.396383270E-06 -.106908000E-05 -.110017980E-06  .362056740E-08 -.154767490E-08
   .497504470E-08  .606204070E-07  .322381520E-06 -.109166260E-05 -.430867360E-04
  -.190121810E-04  .144772200E-02 -.398670460E-01  .319390960E-02  .919875960E-03
  -.134576710E-04 -.770531630E-05 -.445520140E-06  .230045160E-07  .904116890E-08
   .132852750E-08 -.314479170E-10 -.539800120E-09 -.206733040E-08  .194170400E-08
   .183364170E-06  .295652070E-05 -.139075840E-05 -.233631640E-03 -.907644380E-03
   .948176810E-02  .856756690E-02 -.598059910E-04 -.696937410E-04 -.214663150E-05
   .281178560E-06  .390501280E-07  .826934170E-09 -.195087820E-09 -.423842030E-10
   .189053820E-11  .308421580E-10  .955816320E-10 -.130817340E-08 -.150288810E-07
  -.893224570E-07  .357564470E-06  .251743040E-04 -.935225960E-06 -.141243260E-02
   .430392580E-01  .105441470E-03 -.630465330E-03 -.122979370E-04  .301740120E-05
   .261104240E-06  .740517360E-09 -.201266530E-08 -.172205470E-09 -.810594290E-11
 -.618340660E-12
  -.210735330E-01  .937072330E+00  .584993720E-01 -.308805800E+00 -.197046200E-03
  -.357543590E-01 -.409703610E-01  .609358370E-02 -.123183870E-02 -.125960430E-03
   .423611620E-02 -.205200030E-02  .456598190E-01  .328918140E-02  .350904570E-02
  -.568058580E-04 -.328264850E-04 -.262732040E-03 -.130690660E-02  .767153520E-02
  -.158257630E-01 -.316204010E-02 -.130791370E-02 -.242348150E-03 -.552508390E-05
   .322405380E-05  .124494530E-04 -.490666800E-04 -.273819500E-03 -.358674450E-02
  -.942008650E-02  .409366070E-03 -.201897930E-03  .123281030E-03  .705481630E-05
   .420675680E-06 -.174360140E-06 -.830228820E-06 -.149665400E-05  .166677380E-04
   .786547190E-04  .146247070E-02  .476990750E-02 -.254153580E-04  .144149610E-04
  -.501773330E-05 -.325083980E-05 -.151988120E-05 -.721321960E-07  .138374810E-07
  -.113162700E-07  .130846180E-06 -.871471080E-06 -.937000460E-05 -.269061680E-04
  -.365850360E-03 -.192571490E-02  .183443470E-03 -.518378750E-04  .125669170E-04
  -.878172160E-07  .260386320E-06  .288706520E-07  .101866940E-07 -.289913150E-09
  -.118060520E-08  .623502290E-08 -.644311500E-08  .141536900E-05 -.968923590E-06
   .920262610E-04  .166393440E-03  .618833210E-02 -.880312980E-04  .113740180E-03
  -.123338810E-06  .227769320E-06  .168150640E-07 -.166307760E-07 -.745137870E-09
  -.310402920E-09  .107590480E-10  .182334130E-10  .331378390E-09 -.386655100E-08
  -.186960090E-07 -.382416190E-06  .253607890E-05 -.268392460E-04  .739067190E-03
  -.101966460E-02 -.198420290E-03 -.257891640E-04 -.484629770E-05  .854263210E-07
  -.304843000E-07  .471940470E-08  .315365660E-09  .620063820E-10  .125662580E-10
  -.894790520E-12  .952111250E-12 -.102999020E-10  .124815530E-09  .872693270E-09
   .134014890E-07 -.472930590E-07 -.946752020E-06 -.246912940E-04 -.293763630E-03
  -.196043690E-02  .131228290E-03 -.267182230E-04  .358950740E-05 -.799104200E-08
   .130547500E-07 -.561950670E-09 -.382807930E-10 -.137458460E-10 -.453513040E-11
 -.310628990E-12
   .129694290E-01  .321855290E+00 -.178074590E+00  .948113210E+00  .327359400E-02
   .585483530E-03  .348141380E-01  .218758870E-01  .172609200E-02 -.248879570E-03
   .103679340E-02  .768664250E-02 -.104491160E-01  .628054580E-02 -.824900350E-03
  -.626946110E-03 -.138461310E-04 -.386908340E-03  .196052940E-03 -.789336780E-03
  -.104589410E-01  .159698770E-02 -.219536470E-03  .440283190E-04  .616845060E-04
   .260621280E-05  .264008520E-05 -.380568400E-04 -.318163750E-03  .418357870E-03
   .123686660E-02  .928013940E-03  .376824790E-03 -.289274840E-04  .119579470E-04
  -.417476360E-05 -.253315460E-06 -.110127500E-06 -.265010330E-05  .695180470E-05
   .982813000E-04 -.316786420E-03 -.400764660E-02  .259489650E-03 -.127818450E-03
   .579617590E-05 -.418069110E-05 -.668379650E-06  .733488520E-07  .118039460E-07
  -.398189150E-08 -.444875050E-07  .703274760E-06 -.115640680E-04  .820273960E-04
  -.301672590E-03  .232376310E-02  .106639800E-03  .781428430E-04 -.692739270E-05
  -.814600830E-06 -.525482880E-07 -.201935620E-07  .403435920E-08 -.177079580E-09
   .552374390E-09  .595981730E-08  .216103940E-07 -.217641730E-06  .142154240E-05
  -.887096040E-05  .642117740E-03 -.230597520E-03 -.261423700E-03  .642557280E-06
  -.517526920E-05  .487020100E-06 -.163486010E-07  .100801020E-08  .484654920E-09
   .911792040E-10 -.235029540E-11  .335472370E-10  .537597440E-09  .275494390E-08
   .207717120E-07 -.255411830E-06  .127737110E-05 -.337863620E-04 -.170812590E-03
  -.234024250E-02  .259356840E-03 -.202635270E-04  .238556580E-05  .104728580E-06
   .297175920E-08  .272475950E-08  .163564050E-09 -.682810860E-10  .159535480E-10
  -.493293430E-12 -.429658360E-11  .671732770E-11 -.207871420E-09  .293436050E-09
   .144597880E-07  .562638910E-07  .132828590E-05  .118899730E-04 -.164376780E-03
   .445432780E-03  .104787390E-03  .421444700E-05  .135705850E-05 -.647647990E-07
  -.179752340E-07 -.258739880E-09 -.949665890E-10  .266632210E-10 -.982948860E-12
 -.448174320E-12
   .292806470E-01  .609161950E-01  .969449390E+00  .154547230E+00 -.119071910E-01
   .391263320E-02 -.273345960E-01 -.165134180E-01 -.211857750E-01 -.115940990E-02
  -.252541600E-02 -.142838660E-01  .285209710E-02  .108206200E-01 -.972703970E-03
   .263726960E-02  .119409310E-03 -.275055400E-04  .178785290E-03  .148236430E-02
   .472485640E-02  .607659880E-03 -.386431470E-03  .538101910E-04 -.190765220E-03
  -.176615810E-06  .109655540E-04  .576717830E-05  .215286940E-03 -.110523300E-02
   .866985490E-02  .118816800E-03  .148172710E-03 -.268588070E-04 -.277738250E-05
   .420668800E-05  .595603910E-06 -.309853530E-06  .509678460E-05  .365964820E-04
   .219102450E-03  .437427910E-02  .781202440E-02 -.119043190E-02  .246726370E-03
  -.798784230E-04  .115207500E-05 -.126079630E-05 -.327809400E-06  .135290240E-08
  -.132773100E-07 -.983136010E-07 -.508851040E-05  .422021650E-07 -.354995490E-03
   .846966080E-03 -.187147650E-01 -.247288370E-03 -.352529890E-03 -.119150030E-04
   .121908020E-05 -.497949990E-07  .102467800E-06  .724658660E-08 -.357424110E-09
   .193025900E-08  .492595780E-08  .152396310E-06  .132658460E-06 -.119278470E-04
  -.188094640E-04 -.311022350E-02 -.677451450E-03  .133455510E-02  .143879090E-05
   .332704230E-04  .183103770E-06  .119675280E-06 -.166538400E-08 -.370441130E-08
  -.579627960E-09 -.169170860E-10 -.172390050E-09 -.748682650E-09 -.265664710E-08
  -.159523450E-07  .131040280E-05  .226583670E-05  .172440180E-03  .385950450E-03
   .120762970E-01  .959140730E-07  .142718740E-03 -.392181210E-05 -.469539220E-06
  -.405482120E-07 -.680318070E-08  .172870590E-09  .154279210E-09  .274646780E-10
   .173564360E-11  .203305850E-11  .234128570E-10  .564742440E-10 -.161535200E-08
  -.248453850E-07 -.375844480E-06  .131263190E-05 -.250895630E-04  .129248550E-02
  -.184027850E-02 -.655648420E-03 -.268342170E-04 -.908826580E-05  .365130240E-07
  -.701206730E-08  .308123080E-08  .271350380E-09  .135329020E-10 -.107598060E-11
 -.712905140E-12
   .128068970E-02 -.166538310E-02  .216332020E-03 -.175035860E-02  .828808810E-03
   .471582770E-02  .124384950E-01 -.521277890E-03  .163312700E-02  .301865330E-03
  -.117833430E-02  .392410980E-02 -.131616730E-01 -.244123420E-02 -.964842410E-03
  -.224212190E-03 -.105142120E-04  .120795120E-03  .890102500E-04 -.102445360E-02
   .295741970E-02  .376778120E-03  .277958810E-03  .113931430E-03  .327763590E-05
  -.267170870E-05 -.991945410E-05  .145125920E-04 -.367772880E-04  .138505160E-03
  -.235837340E-02  .104265710E-02 -.626540230E-04 -.282247900E-04 -.441552840E-05
   .131480880E-05  .146224920E-06  .653254450E-06  .560946230E-05 -.208712960E-04
   .980675610E-04 -.327775570E-02  .424101510E-02  .108424000E-02  .140429370E-03
   .444543060E-04  .496557970E-05  .872455530E-06  .787635460E-07 -.124040600E-07
   .119699500E-07 -.303629430E-06  .191737930E-05  .973927820E-05  .227533480E-03
   .120633510E-02  .122979330E-01 -.594839350E-03  .203445360E-03 -.226543400E-04
  -.840668120E-06 -.202646320E-06 -.673063350E-08 -.134211480E-07  .188340730E-09
   .428295950E-08 -.746824860E-08  .378918420E-07 -.754612470E-06  .637901250E-05
  -.179111070E-04  .204927430E-02  .324510620E-03 -.109291750E-02 -.259322050E-04
  -.128433700E-04 -.451949290E-06 -.829065160E-07  .753736570E-08  .950798370E-10
  -.225646790E-09 -.342534980E-10 -.120717200E-10 -.790985360E-09  .867543770E-08
   .342212720E-07  .623516900E-07 -.131939140E-05 -.203751670E-04  .114714100E-03
  -.339473820E-02 -.194406590E-03  .145286100E-04  .585334630E-05 -.181494940E-07
   .800272220E-07 -.494925550E-08 -.344357370E-10 -.508344020E-10 -.125982220E-11
   .274388940E-11 -.572265020E-11  .122407680E-10 -.468834500E-09 -.674272500E-09
   .108148110E-07 -.272764500E-06  .115936400E-05 -.682071330E-05  .255123660E-03
  -.290361020E-02  .553050060E-04 -.365388860E-04 -.288178290E-05 -.500088230E-06
   .555196300E-08 -.850107070E-09 -.255384380E-09  .694184790E-11  .132072200E-10
  .139660940E-11
  -.232136930E-02  .177464450E-02 -.109288820E-02 -.911492110E-02 -.103532820E-02
  -.122550210E-02 -.687038470E-02 -.300125440E-02  .240520070E-04  .260164460E-03
  -.328027810E-03 -.314478740E-02  .657180940E-02 -.205500370E-02  .764953400E-03
   .457900920E-03  .113506970E-04  .137547410E-03  .218802310E-03  .145708880E-02
   .581462810E-02 -.224511990E-02 -.198210840E-03 -.136865550E-03 -.528532950E-04
  -.477795540E-05 -.435671620E-05  .127468510E-04 -.456329250E-04 -.228385580E-03
  -.624695290E-02 -.112142530E-02 -.269584400E-03  .660376910E-05 -.577680160E-05
   .378462080E-05  .262758100E-06  .530429430E-06 -.740479060E-06 -.115780700E-05
  -.222168740E-03 -.143517410E-02  .157675350E-03  .448664620E-03  .198578560E-04
   .728862530E-05  .754678330E-05  .123108360E-06 -.114598670E-07 -.126266200E-07
   .180232740E-07  .254587940E-06  .981478390E-06  .951611060E-05  .108613690E-03
  -.455776320E-04  .620833360E-02 -.829462880E-04  .290027510E-04  .173588010E-04
   .736362240E-06  .259838480E-06  .177052950E-07 -.106240940E-07  .474699070E-09
   .934666940E-09 -.263185340E-07 -.616718440E-07  .822771960E-06  .121256010E-04
   .394824850E-04  .139230330E-02  .211386870E-02 -.380882280E-03  .371512360E-04
  -.883419970E-05 -.130374500E-05 -.437045810E-07 -.812584520E-08 -.126377800E-08
  -.890263120E-10 -.114185160E-10 -.927926800E-10 -.211148580E-08  .107257280E-08
  -.262156520E-07 -.320948700E-06  .182209660E-05 -.949990010E-04  .365640860E-03
  -.631859240E-02 -.133830370E-03 -.413627890E-04 -.379224390E-05  .716786110E-06
  -.131731810E-07 -.632281180E-08 -.551889270E-09  .102865410E-09 -.325463810E-10
   .154551460E-11  .894238840E-11  .550293840E-10  .423506460E-09 -.161368140E-08
   .242095310E-07 -.390903950E-06 -.934501750E-06  .559856240E-04 -.137318210E-02
  -.233389960E-02  .751100400E-03 -.101851310E-03  .790909210E-05 -.780491330E-06
   .336040300E-08  .307550810E-08 -.517830560E-09 -.742637890E-10  .954639050E-11
  .197943930E-11
  -.618058030E-02 -.193399030E-01  .108240390E-01  .990002430E-02  .139576920E-02
   .947357910E-02  .692295210E-02  .810495980E-03  .291299850E-02  .691615240E-03
  -.586822240E-03  .418395390E-02 -.201931860E-01 -.338759770E-02 -.116824980E-02
  -.114022690E-02 -.934564700E-04 -.672330360E-04  .909133150E-04 -.891006150E-02
   .966400340E-03  .312216830E-02  .298872900E-03  .172467850E-03  .124393580E-03
   .344722040E-05  .933884990E-05 -.434085350E-04  .866056480E-03  .951734710E-04
   .289564940E-01 -.110060730E-03  .858197910E-03  .680655580E-04  .439110270E-05
   .102429310E-05 -.568757540E-06  .343781920E-06  .363779960E-05  .277278390E-04
   .146063670E-04  .750295670E-02 -.136475790E-02 -.360790740E-02  .187937940E-04
  -.800819600E-04 -.433394470E-05  .101849160E-05 -.322001860E-06 -.350351720E-07
   .574261860E-07 -.422257600E-06 -.244586110E-05  .130277500E-04 -.590704030E-03
   .122555530E-02 -.396419330E-01 -.520771680E-03 -.517750530E-03 -.290587480E-04
  -.129661850E-05 -.356658250E-06 -.130911100E-06 -.651030160E-08  .256530610E-08
  -.992900110E-08  .489591170E-08 -.170428080E-06 -.325624270E-05 -.174098500E-04
  -.235603350E-03 -.739234270E-02 -.136699180E-01  .315841760E-02 -.223439440E-03
   .472058680E-04  .178246520E-05 -.149995640E-06  .527394620E-07  .249296730E-08
   .203202980E-08  .980755790E-10  .346777350E-09  .264754480E-08 -.402535700E-08
   .154209400E-06  .228999300E-05 -.315487490E-05  .499869590E-03 -.163030590E-02
   .477872820E-01  .759898690E-03  .471403450E-03  .209026630E-04  .366085170E-06
   .102165460E-06  .989138200E-08 -.407845650E-09  .148266610E-09 -.888480490E-10
  -.818799680E-11 -.363335260E-11 -.641820100E-10  .127119210E-08 -.546773510E-08
   .309147330E-07  .657578250E-06  .102522740E-04  .165237140E-03  .540067170E-02
   .137145000E-01 -.235004240E-02  .111833190E-03 -.245587210E-04 -.825704200E-06
   .219487880E-07 -.397616880E-08 -.151405020E-09 -.455367790E-10 -.150830760E-10
 -.300370830E-11
   .143073210E-02  .352720970E-02  .308725130E-03 -.519061200E-03 -.101864460E-02
   .608946690E-03 -.550105970E-02 -.493675600E-03 -.116822020E-02 -.180837040E-03
   .373201840E-04 -.274296380E-02  .113187860E-02  .151365530E-02  .480778310E-04
   .181084040E-03  .181948090E-04 -.243544270E-04  .186703830E-03 -.950973690E-03
   .313655560E-02  .492843480E-03  .152095390E-03  .506104420E-05 -.183430500E-05
   .100286610E-05  .448496400E-05  .851526740E-06  .141128060E-03  .119224720E-02
   .433737870E-02 -.105312480E-02  .108381850E-03 -.192642550E-04  .585553530E-06
  -.122492920E-05 -.340081300E-07 -.254427020E-06 -.344769250E-05  .889629840E-05
  -.112128170E-03  .223725460E-02 -.457618240E-02 -.878738810E-03 -.119433000E-03
  -.298120400E-04 -.281679750E-05 -.587793130E-07 -.479363200E-07  .359520810E-08
  -.496619590E-08  .155492590E-06 -.125206600E-05 -.371453980E-05 -.179539230E-03
  -.896104120E-03 -.935339450E-02  .415696970E-03 -.139096330E-03  .125005320E-04
   .562145400E-06  .649889190E-07 -.528260580E-08  .730714810E-08  .187488050E-10
  -.350120550E-08  .459418830E-08 -.102708580E-07  .223588110E-06 -.467058030E-05
  -.173869470E-04 -.156642760E-02 -.287205140E-02  .847018760E-03 -.300698900E-04
   .945280290E-05  .390912970E-06  .502576930E-07 -.275636440E-08 -.146627180E-09
   .391344860E-09  .247456670E-10  .109359620E-11  .858108060E-09 -.641081880E-08
  -.340001140E-07  .969004800E-07  .846113390E-06  .290983020E-04 -.316177720E-03
   .362628850E-02  .262282650E-03  .732661900E-05 -.267586830E-05 -.172561870E-07
  -.454355860E-07  .472021240E-08  .664535980E-10  .141472050E-10 -.610886240E-11
  -.198011340E-11  .498936740E-11 -.599411060E-11  .229989220E-09 -.184492460E-09
  -.952048140E-08  .181775650E-06 -.753593180E-06  .800271300E-05  .251113730E-04
   .252009870E-02 -.177163370E-03  .353326910E-04 -.199632880E-06  .411223420E-06
  -.139574290E-07 -.268006960E-09  .140407680E-09  .293308080E-11 -.791034150E-11
 -.105503350E-11
   .233755030E-03 -.187901830E-02  .900989550E-03  .362657380E-02  .475354180E-03
   .866298010E-03  .168250890E-02 -.334578700E-03 -.338685220E-04 -.160237680E-03
   .196239380E-04  .105214830E-02 -.300091490E-02 -.520190820E-04 -.367549580E-03
  -.266162100E-03 -.902103600E-05 -.334510190E-05 -.228599820E-03 -.105236830E-02
  -.302107720E-02  .113882600E-02  .731134060E-04  .783595610E-04  .249526620E-04
   .383759900E-05  .233484190E-05 -.249993210E-05  .106595620E-03 -.288748850E-04
   .485738660E-02  .555054650E-03  .123646200E-03  .133849250E-04  .271662380E-05
  -.155662900E-05 -.111197490E-06 -.416035790E-06  .859013500E-06  .398802620E-06
   .165017600E-03  .121144550E-02  .133744180E-02 -.505716560E-03  .108311970E-04
  -.108986930E-04 -.537152750E-05  .232803340E-06 -.331567500E-07  .376788860E-08
  -.156045100E-07 -.144460610E-06 -.633352510E-06 -.357892340E-05 -.109112370E-03
   .223236670E-03 -.564818400E-02 -.549575120E-04 -.472461610E-04 -.975741040E-05
  -.320115750E-07 -.258967320E-06 -.104204830E-07  .963419060E-08 -.333335450E-09
  -.124584290E-08  .201462400E-07  .104114230E-07 -.730665530E-06 -.107912190E-04
  -.373428120E-04 -.134901820E-02 -.164190330E-02  .312019340E-03 -.228065780E-04
   .814321200E-05  .756547740E-06  .500545480E-07  .760429160E-08  .588597210E-09
   .215967250E-10  .704156320E-11  .549632060E-10  .166433060E-08 -.164965820E-08
   .327602140E-07  .247713460E-06 -.141885900E-05  .874456010E-04 -.353153890E-03
   .558033930E-02  .422920580E-04  .255449750E-04  .171638770E-05 -.604676650E-06
   .278120430E-08  .401615600E-08  .507318220E-09 -.663164380E-10  .159747550E-10
  -.866158720E-12 -.337108470E-11 -.394387860E-10 -.222055470E-09  .152005980E-08
  -.283580230E-07  .371138990E-06 -.655715070E-06 -.444739950E-04  .115147150E-02
   .200700930E-02 -.709156360E-03  .812938130E-04 -.580324740E-05  .653590950E-06
   .115553480E-07 -.196617200E-08  .563730570E-09  .421439960E-10 -.831933520E-11
 -.150043420E-11
   .117941200E-02  .447306210E-02 -.522409250E-02 -.214256120E-02 -.303584050E-03
  -.586911550E-02 -.172049880E-02  .128576780E-02 -.460054290E-03 -.274715740E-03
   .844430720E-03 -.142807150E-02  .142786920E-01  .968460410E-03  .988596980E-03
   .387485590E-03  .492385190E-04  .657427130E-04  .851467290E-04  .664721280E-02
   .481998450E-03 -.260419070E-02 -.760750520E-05 -.155027660E-03 -.399594380E-04
  -.332348130E-05 -.882090960E-05  .266408730E-04 -.727934240E-03  .807098370E-03
  -.253315020E-01 -.361639830E-03 -.711395860E-03 -.566168640E-04 -.102908820E-05
  -.315040170E-05  .145701330E-06 -.157453180E-06 -.564086400E-05 -.328166250E-04
  -.132862150E-03 -.730259380E-02 -.332242830E-02  .316583020E-02 -.102173760E-03
   .865717120E-04  .287062050E-05 -.605523090E-06  .465640730E-06  .362091280E-07
  -.522375430E-07  .487116620E-06  .303403990E-05 -.760665460E-05  .568725080E-03
  -.149871740E-02  .368213000E-01  .760462310E-03  .522807680E-03  .299623010E-04
   .322115060E-06  .346304470E-06  .696489500E-07  .334802820E-08 -.215181360E-08
   .820238870E-08 -.311498590E-08  .878510750E-07  .248644140E-05  .172353290E-04
   .210219230E-03  .672482250E-02  .122147440E-01 -.289255280E-02  .168620220E-03
  -.467087610E-04 -.146732260E-05  .148457610E-06 -.471233730E-07 -.245653420E-09
  -.182046490E-08 -.784821000E-10 -.241889920E-09 -.236392330E-08  .598897500E-08
  -.134396580E-06 -.202320260E-05  .632002120E-06 -.443784200E-03  .132668350E-02
  -.424493790E-01 -.772621560E-03 -.416441930E-03 -.164514320E-04  .112886690E-08
  -.838811650E-07 -.779027500E-08  .330777720E-09 -.222488580E-09  .806618170E-10
   .618840140E-11  .440918540E-11  .586628340E-10 -.112344500E-08  .442327780E-08
  -.205365670E-07 -.323817730E-06 -.837214450E-05 -.122599990E-03 -.455733630E-02
  -.106562590E-01  .203115180E-02 -.679808380E-04  .216901110E-04  .595721490E-06
  -.280053400E-07  .290831300E-08  .477144350E-10  .540079240E-10  .133085050E-10
  .318859390E-11
