   .246968180E-01 -.917210490E+00 -.187355100E+00 -.320325430E+00 -.138578190E-02
   .874066410E-02  .507300520E-01 -.986126110E-02  .805113890E-03  .150912640E-04
   .145816890E-04  .104119740E-01 -.128128300E-01 -.309562660E-02  .250550370E-02
  -.262517230E-04  .102356550E-04  .141510640E-03 -.416421710E-03  .191485320E-02
  -.764733030E-02  .752447320E-03 -.476084600E-04 -.226296960E-03  .140394130E-04
   .687730960E-06 -.105071610E-04  .217043110E-04  .292729270E-03  .186965910E-03
   .493702510E-02  .163065550E-02  .575860650E-04  .297831840E-04  .122346850E-05
  -.149475130E-05 -.127846500E-07 -.364279770E-07  .261846490E-05  .447842330E-05
  -.852078310E-04  .423890630E-03 -.589617060E-04  .216308330E-03 -.120266780E-03
  -.410603480E-06 -.263995480E-06 -.117751810E-06  .229408020E-07  .174713200E-08
  -.968613100E-09 -.142014650E-06  .638144650E-06  .708159080E-05 -.581868290E-04
  -.532425230E-04  .102167480E-02 -.333284060E-03 -.724658180E-05  .603985480E-05
   .632510990E-06 -.281216720E-07 -.137807230E-07 -.254839420E-08  .859105520E-10
  -.835152480E-09  .351772950E-08 -.202247240E-07 -.923042950E-07  .313009550E-05
   .708287520E-05 -.111961580E-03 -.126170320E-02 -.179604570E-03  .116184580E-04
   .139197810E-05  .488727990E-07 -.305222990E-07 -.280531460E-08 -.211335990E-09
  -.198693260E-10 -.288815560E-11 -.590698420E-11 -.256690330E-10  .149736670E-08
   .108359240E-07 -.156596150E-06 -.120301910E-05  .136253560E-04  .829864110E-04
  -.153874980E-03  .191594840E-04  .146787530E-04  .323126710E-06 -.104291600E-06
  -.420975420E-08 -.377699870E-09  .927537110E-10 -.367328350E-11 -.854121990E-12
   .985260800E-13 -.242846190E-12 -.691519180E-11 -.838819490E-11 -.645188260E-11
   .678074240E-08  .315341890E-07 -.715873200E-06 -.633673310E-05  .485678280E-04
  -.460712740E-03  .152805500E-03  .218467140E-05 -.681820550E-06 -.391023000E-07
   .100703110E-08  .388525170E-09  .603829150E-10  .203850330E-11 -.138235520E-11
 -.104592790E-12
   .131506780E-01  .309766830E+00  .241379410E-02 -.949951020E+00  .355112170E-02
  -.728291170E-02  .294011110E-01 -.401934170E-01 -.274849030E-02 -.515357090E-03
   .187665010E-02 -.119594770E-02 -.426239250E-01 -.794514780E-03  .439430040E-02
   .506470220E-03 -.881946580E-05 -.241430980E-03 -.642620100E-03 -.160422030E-03
   .989028010E-02  .390596050E-02 -.134948740E-02  .132845730E-03 -.418199290E-04
   .234949120E-05 -.774266980E-05  .296167360E-05 -.140983010E-03  .301867590E-04
   .631290360E-02 -.664867120E-03 -.111506910E-03  .356746390E-04 -.156216120E-04
   .770803260E-06 -.185992260E-06  .842991820E-06 -.195629400E-06  .768433980E-06
  -.844757920E-04  .135740050E-03  .258539510E-02  .112898240E-02 -.147381010E-03
  -.575854000E-05  .652413620E-05  .120222310E-05  .491523560E-07  .252752450E-08
  -.112196300E-07 -.154004870E-06  .226286480E-06  .289273080E-05 -.163194120E-04
  -.132315000E-03  .201871270E-02 -.740647470E-04 -.906456510E-04  .220805550E-05
   .119835850E-05 -.693094650E-07 -.743406400E-08 -.252382420E-08  .534493520E-10
   .650403850E-09  .100489050E-07 -.215663470E-07 -.169331280E-06  .103825630E-05
   .580726300E-05 -.430355740E-04 -.398189550E-03 -.543989610E-03  .103136830E-04
   .784802700E-05  .151184930E-06 -.824340350E-07 -.600939880E-08 -.249050590E-09
   .228281110E-09 -.314202560E-11 -.271799510E-10 -.171988600E-10  .188507530E-08
   .824323490E-08 -.711254440E-07 -.154553280E-05  .343044940E-05  .851924350E-04
  -.269102930E-02  .205593110E-04  .443377430E-04  .460705060E-06 -.332388720E-06
  -.123105830E-07  .175838520E-08  .339483600E-09  .166412650E-10 -.582149140E-11
   .212683060E-12  .450481160E-12 -.988224000E-11 -.946509410E-10  .471845830E-10
   .788882340E-08  .654955300E-07 -.284400090E-06 -.106057380E-04  .245649380E-04
  -.383731220E-03  .403540430E-03  .747627280E-05 -.280080710E-05 -.920367860E-07
   .852781520E-08  .103648250E-08  .275789610E-10 -.103981490E-10 -.173342960E-11
 -.646453080E-15
  -.279538700E-01 -.161708780E+00  .986613020E+00  .133435230E-01  .490071230E-03
   .217719950E-01  .498496490E-01  .156471700E-01 -.239303310E-01  .984627640E-03
  -.191766580E-02 -.231492240E-02 -.714535650E-02 -.178238140E-01 -.291261910E-02
   .252779890E-02 -.208058560E-03  .161841120E-03 -.199777300E-04 -.142327000E-02
   .190199870E-02 -.192629810E-02 -.795494560E-03  .251431000E-04 -.655791300E-06
  -.181156940E-05 -.157717070E-04  .204048810E-04  .547611880E-03  .568218930E-03
  -.905125330E-02 -.250722620E-02  .438595160E-03  .452093750E-04 -.315454640E-05
  -.787011050E-05  .292365570E-06  .345985290E-06 -.594439110E-06 -.471603400E-04
   .355125690E-04  .442548020E-03 -.139785320E-01  .288832350E-02  .461412760E-03
  -.535868140E-04 -.919458160E-05  .411583980E-06  .829996600E-06 -.177203500E-07
  -.570692550E-07  .231185920E-06  .303951260E-05 -.437823580E-05 -.110592130E-03
   .856131830E-04  .369400460E-02  .274326310E-02 -.127637510E-03 -.333738210E-04
   .222042180E-06  .392935310E-06  .348019530E-07 -.222291610E-08  .182093960E-09
   .195835170E-09 -.151421030E-07 -.737243130E-07  .418569020E-06  .721390900E-05
  -.314184630E-04 -.278985550E-03  .878253670E-02 -.463579600E-03 -.211304030E-03
   .145340560E-05  .200428980E-05  .111112870E-06 -.126016320E-07 -.386564430E-08
  -.257823200E-09 -.145130050E-11  .985827410E-10  .402188730E-09  .401984340E-09
  -.401430280E-07 -.351247170E-06  .181927240E-05  .288421370E-04  .850550450E-04
  -.285337630E-02 -.132810400E-02 -.115177320E-05  .105993520E-04  .339291650E-06
  -.503248630E-07 -.746507730E-08 -.272467350E-09  .129951040E-09  .280083780E-10
  -.133066570E-11 -.567997670E-11 -.150751460E-11  .199795520E-09  .165179270E-08
   .558820550E-08 -.595979950E-07 -.158247120E-05  .509234800E-05  .680496850E-04
  -.426279830E-02 -.113400530E-03  .646968730E-04  .164101670E-05 -.342578630E-06
  -.286724010E-07 -.138230890E-09  .293627120E-09  .306250740E-10  .257820220E-12
 -.924229000E-12
  -.456102610E-02 -.570288080E-02  .137179060E-02  .106414730E-02  .697269570E-03
  -.128571280E-02 -.107262970E-01  .919063070E-03  .717659700E-03 -.587004250E-04
  -.594023380E-04 -.337611110E-02  .381301380E-02  .190927670E-02 -.793673920E-03
  -.623647630E-05  .176240400E-05 -.336736980E-04 -.447030140E-04 -.178610280E-02
   .280004470E-02 -.711435060E-04  .756822480E-04  .114380200E-03 -.373862860E-06
  -.398557770E-06  .426812530E-05  .317051380E-05 -.112245500E-03 -.300588740E-03
  -.228776350E-02 -.856617040E-03 -.107154730E-03 -.239003400E-04  .902352160E-06
   .130911800E-05 -.139188950E-07  .113091790E-06 -.213551770E-05  .790298650E-06
   .211065410E-04 -.443379820E-03 -.630460700E-03 -.310647850E-03  .967603140E-04
   .434660120E-05  .885784050E-06 -.486532760E-07 -.127248550E-07  .200171240E-08
   .200488330E-08  .405768930E-07 -.446738810E-06 -.322390450E-05  .435295580E-04
  -.488810790E-04 -.532180340E-03  .655764280E-04 -.303500530E-05 -.204776970E-05
  -.418262740E-06 -.223849470E-07  .512357010E-08  .326496890E-08 -.204448430E-09
   .137890850E-08  .304768870E-08 -.803409680E-08 -.139378950E-06 -.972405690E-06
   .287375910E-05  .658052980E-04 -.706432190E-03  .631360220E-04  .127454180E-04
   .951674440E-06 -.828310460E-07  .709346790E-08  .323858710E-10  .716943470E-09
   .234965250E-09 -.166259240E-10 -.773945330E-10  .226456730E-09  .562941380E-08
   .144916960E-07 -.374336590E-06 -.258157650E-05  .343569980E-05 -.216052070E-03
  -.136654530E-02 -.239464600E-03  .359377380E-04  .192834820E-05 -.166925510E-06
  -.428575860E-07 -.128902590E-08  .785189050E-09  .977855810E-10 -.101416870E-10
   .810812400E-12  .135507580E-11 -.266760160E-10 -.317748490E-09  .712199230E-10
   .262334170E-07  .153937400E-06 -.167016150E-05 -.122166060E-04  .576616620E-04
  -.158289350E-03  .253361920E-03  .664454800E-05 -.174093390E-05 -.172815780E-06
   .250395590E-08  .240877670E-08  .142406790E-09 -.289631060E-10 -.400985320E-11
  .734691160E-13
   .247769500E-03  .351328390E-02  .255433250E-03 -.515880120E-02 -.488993100E-03
   .192159740E-02 -.115903350E-01  .713395400E-02  .251824680E-02  .127363780E-03
  -.723774200E-03  .429118650E-03  .131984080E-01  .244780840E-02 -.135153130E-02
  -.435167600E-03  .125788860E-04  .124072750E-03  .679638290E-04  .581201050E-03
  -.287769410E-02 -.566791440E-03  .361283350E-03 -.811846830E-04  .253030640E-04
  -.187524470E-05  .581975100E-05  .999463250E-05 -.402978930E-05 -.301693360E-03
  -.114748850E-02  .120587610E-03 -.241671140E-04 -.124176440E-04  .996060190E-05
   .357818920E-06  .836946130E-07 -.687611070E-06 -.224519240E-06  .537454360E-05
   .747612650E-04  .505524040E-04 -.218907920E-02 -.101678170E-02  .101673160E-03
   .103338790E-04 -.344984200E-05 -.908349030E-06 -.180288820E-06  .341389350E-08
   .942750190E-08  .838228290E-07 -.528066740E-08 -.239256120E-05  .161902710E-04
   .951711810E-04 -.122209190E-02 -.202367720E-03  .509027630E-04  .417218890E-05
  -.253867380E-06 -.551043760E-07 -.118875240E-07  .715666940E-08 -.389152980E-09
   .625118400E-10 -.337971810E-09 -.171070250E-07 -.203704350E-06  .548127690E-06
  -.856699350E-05  .500272330E-04 -.178541520E-02  .157324660E-03  .387440310E-04
  -.227464250E-05 -.707150770E-06 -.750192420E-08  .102585590E-07  .154252830E-08
  -.286651600E-09  .257650400E-11  .285365150E-10  .401970770E-09  .158251150E-08
  -.213541210E-09 -.314497540E-06 -.894525610E-06  .151280770E-04  .147897770E-03
  -.521974420E-02 -.465329290E-03  .101148420E-03  .265722500E-05 -.555363830E-06
  -.282996510E-07 -.877155720E-09 -.822483660E-10  .445110170E-10  .172381630E-10
  -.460495600E-12 -.156987660E-11 -.518498490E-11  .253683010E-10  .229129520E-09
   .988117320E-08  .670032000E-07 -.118663250E-05 -.828324920E-05  .250743960E-04
  -.696910060E-03  .734590660E-03  .108304510E-04 -.469834290E-05 -.159347780E-06
   .169773660E-07  .103134130E-08  .520820270E-10  .750497620E-11  .314108750E-12
 -.205262670E-13
   .751544060E-02 -.488560280E-02 -.920749280E-02 -.291823840E-01  .583187350E-03
  -.366952770E-02 -.198745720E-01  .842682750E-02  .461580680E-02 -.376824130E-03
   .116402780E-03  .414437650E-03  .273338630E-01  .141099580E-01 -.193785750E-02
  -.141091580E-02  .133751560E-03  .117539980E-03 -.551663070E-04 -.128246160E-02
   .186009550E-01 -.107904560E-01 -.110464400E-02  .337768830E-03  .491585540E-04
  -.395956670E-05 -.137734090E-04  .770367240E-05  .405236250E-03  .792616510E-03
  -.322594050E-01 -.100072810E-01  .135113720E-02  .261620120E-03 -.185590190E-04
  -.264930260E-06  .352995150E-06  .140609180E-05 -.546570270E-05 -.835008710E-04
   .491715030E-05  .190687280E-02 -.322699850E-01  .764459260E-02  .138639980E-02
  -.720309670E-04 -.197111940E-04 -.104132050E-05 -.464509890E-06 -.188867080E-07
   .103507030E-08  .771475380E-06  .693016990E-05 -.132623630E-04 -.462483730E-03
  -.110671000E-02  .287336450E-01  .113958780E-01 -.620348120E-03 -.157429470E-03
  -.677176400E-06  .105706440E-05  .132255840E-06  .262745720E-07  .120592960E-08
  -.747178880E-08 -.660426640E-07 -.286332910E-06  .233480350E-05  .574061650E-04
  -.229016020E-04 -.198025600E-02  .505557170E-01 -.427010050E-02 -.115878120E-02
   .124798610E-04  .954473030E-05  .586219250E-06 -.131464350E-07 -.864392480E-08
  -.234946430E-08  .516070200E-10  .668425900E-09  .257361710E-08  .195820970E-08
  -.241274910E-06 -.364260660E-05  .430692900E-05  .351941800E-03  .867808070E-03
  -.199052960E-01 -.103817680E-01  .180483620E-03  .848034600E-04  .239175610E-05
  -.304786970E-06 -.407192950E-07 -.256406470E-08  .179967420E-09  .772322160E-10
  -.265832560E-11 -.265833800E-10 -.624636840E-10  .153193350E-08  .178055250E-07
   .980349530E-07 -.879153250E-06 -.339383960E-04  .218269470E-04  .194961140E-02
  -.541631590E-01  .755211400E-03  .798255920E-03  .139109950E-04 -.414092380E-05
  -.317478990E-06 -.640462420E-09  .195282080E-08  .267167920E-09  .123909620E-10
 -.223867810E-11
   .431420730E-03  .165821530E-02 -.510218290E-03  .561644500E-03 -.353840900E-03
   .147697520E-03  .234946530E-02  .159955290E-03 -.450893580E-03  .507514770E-04
   .206759020E-04  .475543120E-03 -.553445380E-03 -.787686340E-03  .119836650E-03
   .125471260E-04 -.584929880E-05  .739336510E-05  .601892110E-04  .537174910E-03
  -.109283520E-02 -.734887580E-04 -.251085730E-05 -.278537040E-04 -.132596840E-05
   .176275280E-06 -.100386520E-05 -.495400190E-05  .207091350E-04  .161711200E-03
   .672398860E-03  .317382320E-03  .440937500E-04  .783260510E-05 -.617941620E-06
  -.566113590E-06  .159395300E-07 -.662576630E-07  .858006710E-06 -.100031520E-06
  -.574116960E-05  .148643910E-03  .140184500E-03  .924122550E-04 -.344000350E-04
  -.162399580E-05 -.400984380E-06  .386238300E-07  .286519920E-08 -.122909050E-08
   .288387150E-08 -.112014160E-08 -.417031530E-07  .467164670E-06 -.970184460E-05
   .551677490E-05 -.164756300E-03 -.376791450E-04  .133289100E-04  .915447950E-06
   .910872760E-07  .484578890E-08 -.193944140E-08 -.763050470E-09  .551208100E-10
  -.865550630E-09 -.196335630E-08  .231479420E-07  .811387740E-07 -.861301270E-06
  -.424439500E-05  .574977350E-05  .438289590E-03  .795025890E-04 -.662326600E-05
  -.139445190E-05 -.262501670E-07 -.205551950E-08  .166920940E-08 -.171851620E-09
  -.173607830E-09  .153412070E-10  .554604530E-10 -.311911190E-09 -.515336450E-08
  -.744809990E-08  .385885860E-06  .208378590E-05 -.103515900E-04  .139325990E-03
   .132795970E-02  .226796170E-03 -.371643990E-04 -.214296200E-05  .165993510E-06
   .407072120E-07  .187490850E-08 -.675920780E-09 -.843859850E-10  .602075580E-11
  -.602008050E-12 -.264491820E-12  .285893120E-10  .228950490E-09 -.505517460E-09
  -.225562430E-07 -.104322920E-06  .157498150E-05  .100063170E-04 -.628606040E-04
   .451555970E-03 -.244724140E-03 -.922606570E-05  .144460140E-05  .168031960E-06
   .990684850E-11 -.211481450E-08 -.175429010E-09  .181139370E-10  .379332270E-11
  .115079700E-12
  -.118592650E-02 -.612141930E-03 -.483723000E-03  .380272970E-02 -.114498540E-03
  -.419325540E-03  .411128460E-02 -.569728700E-03 -.121966510E-02  .550809620E-05
   .159031840E-03 -.118671760E-03 -.183542050E-02 -.154064160E-02  .170245520E-03
   .195193250E-03 -.618567980E-05 -.324639870E-04  .239096420E-04 -.169403120E-03
  -.226713940E-03 -.251748070E-03 -.138947590E-04  .345569410E-04 -.799076370E-05
   .680897500E-06 -.153160060E-05 -.509791450E-05  .937364490E-05  .129834490E-03
  -.140602360E-03  .200261150E-03  .271060090E-04 -.697773970E-06 -.310387270E-05
  -.361600730E-06  .660656450E-08  .189809270E-06 -.759321140E-07 -.140408080E-05
  -.322355160E-04 -.517451710E-04  .692039760E-03  .358349120E-03 -.311423380E-04
  -.357190830E-05  .775530460E-06  .275917620E-06  .108250500E-06 -.270743290E-08
   .122059650E-08 -.162373460E-07 -.253087980E-06  .206871160E-06  .142889230E-05
  -.408015540E-05 -.484872990E-03  .483194730E-04  .966422830E-05 -.176076500E-05
  -.294994460E-06  .271281340E-07  .842455260E-08 -.371095330E-08  .232573340E-09
  -.316770050E-09 -.175715630E-08  .301059000E-07  .187979250E-06 -.147103110E-05
  -.139805090E-07  .148660700E-04  .106131150E-02  .191475130E-03 -.205325610E-04
  -.176105350E-05  .301672120E-06  .268074410E-07 -.340839000E-08 -.772084620E-09
   .114113430E-09  .635597070E-12 -.133126650E-10 -.411657480E-09 -.211750740E-08
   .178776160E-08  .305262910E-06  .131799440E-05 -.143883230E-04 -.145803220E-03
   .523168390E-02  .424576170E-03 -.976118610E-04 -.320793040E-05  .527991090E-06
   .346132630E-07  .912660560E-09 -.115287610E-09 -.540313020E-10 -.113481330E-10
   .235596230E-12  .154830510E-11  .125804430E-10  .157600460E-11 -.535940070E-09
  -.102440120E-07 -.544421560E-07  .104316470E-05  .965525130E-05 -.246084880E-04
   .993550690E-03 -.649309770E-03 -.162195440E-04  .409788580E-05  .198445390E-06
  -.103784140E-07 -.139264670E-08 -.109147270E-09 -.321639660E-11  .815615290E-12
  .116847780E-12
  -.214773810E-02  .104316200E-02  .619224860E-02  .107168970E-01 -.654939070E-03
  -.223379800E-03  .883644740E-02 -.769883970E-02 -.212751590E-02  .229109650E-03
   .492428030E-03 -.386437320E-04 -.185698910E-01 -.861874730E-02  .188766440E-02
   .725264070E-03 -.699642220E-04 -.148072660E-03  .173892630E-03  .137815010E-02
  -.170973700E-01  .789709190E-02  .134809850E-02 -.219694010E-03 -.471690960E-04
   .554496370E-05  .161300160E-04 -.381378900E-04 -.474621150E-03 -.396837220E-03
   .240842690E-01  .906557060E-02 -.100530770E-02 -.229189840E-03  .842032440E-05
   .225497200E-05 -.419084960E-06 -.870661070E-06  .762768390E-05  .762093510E-04
  -.955346240E-04 -.157335620E-02  .299866810E-01 -.538069840E-02 -.124207250E-02
   .441440090E-04  .172869700E-04  .134315370E-05  .261533700E-06  .219452250E-07
  -.102499090E-07 -.855008760E-06 -.596667970E-05  .192823250E-04  .377899350E-03
   .515123510E-03 -.203466310E-01 -.955837130E-02  .400556590E-03  .126560190E-03
   .213737690E-05 -.790548850E-06 -.117121880E-06 -.264293920E-07 -.536704050E-09
   .809194370E-08  .597670840E-07  .158370320E-06 -.274050080E-05 -.440082140E-04
   .705937040E-04  .153077030E-02 -.409208200E-01  .219585060E-02  .940249490E-03
   .399083210E-05 -.733954960E-05 -.621787440E-06 -.656452680E-08  .701011390E-08
   .240605150E-08 -.401844060E-10 -.560583670E-09 -.193731250E-08  .375122170E-08
   .234132570E-06  .263489830E-05 -.698221440E-05 -.264894210E-03 -.450633690E-03
   .127846000E-01  .788111940E-02 -.705746660E-04 -.620927510E-04 -.237208170E-05
   .200293500E-06  .316285280E-07  .252671680E-08 -.405326040E-10 -.425091910E-10
   .185957480E-11  .201364660E-10  .120083280E-10 -.159082890E-08 -.151548540E-07
  -.497313890E-07  .101902820E-05  .248115410E-04 -.456391530E-04 -.143279120E-02
   .409791270E-01  .344696330E-03 -.603199870E-03 -.174063930E-04  .295415890E-05
   .282369620E-06  .433315450E-08 -.136726910E-08 -.236139810E-09 -.144255780E-10
  .238064910E-11
  -.211230240E-01  .938759680E+00  .567011050E-01 -.305298780E+00 -.167001790E-03
  -.361187600E-01 -.417151390E-01  .682199900E-02 -.135840020E-02 -.133133900E-03
   .434534460E-02 -.228571120E-02  .460183510E-01  .316969520E-02  .331060890E-02
  -.344777080E-04 -.307514700E-04 -.281186680E-03 -.129094050E-02  .765686570E-02
  -.157098820E-01 -.338593910E-02 -.128901540E-02 -.233731650E-03 -.903272440E-06
   .282574490E-05  .133960590E-04 -.445456900E-04 -.265652960E-03 -.348190390E-02
  -.876698910E-02  .586609080E-03 -.171827200E-03  .120906470E-03  .608276970E-05
   .267084750E-06 -.180253810E-06 -.951155280E-06 -.194240030E-05  .159546420E-04
   .605468080E-04  .169279720E-02  .444149370E-02 -.155144490E-03  .623845970E-06
  -.100509350E-04 -.283852910E-05 -.165142950E-05 -.347458070E-07  .136133910E-07
   .346131040E-08  .130697930E-06 -.114845200E-05 -.931999140E-05 -.474236470E-04
  -.401202300E-03 -.247727710E-02  .908194690E-04 -.700554560E-04  .135569540E-04
   .707468230E-07  .289239380E-06  .328215300E-07  .759411840E-08 -.288194230E-09
  -.106447110E-08  .407939410E-08 -.825986690E-08  .134101320E-05 -.712808000E-06
   .793219110E-04 -.398198310E-04  .553190960E-02 -.154344680E-05  .104835140E-03
   .174473200E-05  .116808390E-06 -.263631210E-08 -.136413970E-07 -.125109120E-08
  -.348539610E-09  .764437640E-11  .381645950E-10  .275242590E-11 -.199464510E-08
  -.204599690E-07 -.374041860E-06  .176777480E-05 -.241311420E-04  .665130400E-03
  -.128057830E-02 -.229465350E-03 -.197603170E-04 -.525053020E-05  .664654540E-07
  -.294597110E-07  .395236320E-08  .249117350E-09  .762626870E-10  .130930540E-10
  -.208224190E-12 -.729650500E-12 -.648107880E-11  .160806200E-09  .443961520E-09
   .144441850E-07 -.604650030E-07 -.967965150E-06 -.164180070E-04 -.309922500E-03
  -.127992280E-02  .150584430E-03 -.173122750E-04  .328549910E-05 -.664236280E-08
   .177850220E-07 -.396776930E-09 -.344997260E-10 -.161517460E-10 -.202097550E-11
 -.290903890E-12
   .132958160E-01  .318447510E+00 -.175535230E+00  .949895060E+00  .345146300E-02
   .110593910E-02  .365227790E-01  .214798330E-01  .166320140E-02 -.292165150E-03
   .736277850E-03  .779220170E-02 -.113754070E-01  .616348130E-02 -.888670880E-03
  -.593485310E-03 -.969593340E-05 -.383284220E-03  .178117140E-03 -.108920600E-02
  -.100933800E-01  .160799360E-02 -.242377720E-03  .605606340E-04  .663566390E-04
   .227907080E-05  .331464380E-05 -.326381100E-04 -.294741690E-03  .315502190E-03
   .193393730E-02  .104791710E-02  .397821230E-03 -.297630210E-04  .102501790E-04
  -.420247400E-05 -.279270480E-06 -.160738370E-06 -.227467120E-05  .670224980E-05
   .965139850E-04 -.181036950E-03 -.411016090E-02  .203476670E-03 -.132421110E-03
   .256312850E-05 -.390453860E-05 -.757662640E-06  .778046580E-07  .995919990E-08
   .893599580E-08 -.847843620E-07  .625911570E-06 -.132943000E-04  .746703490E-04
  -.180608190E-03  .170629840E-02  .301427320E-04  .621854230E-04 -.800717250E-05
  -.852943560E-06  .171678170E-07 -.188910010E-07  .339946240E-08 -.108444720E-09
   .112478590E-08  .308943380E-08  .268454700E-07 -.240807620E-06  .177703890E-05
  -.152080630E-04  .468453930E-03 -.753890820E-03 -.177981620E-03 -.148728580E-05
  -.385512440E-05  .502073500E-06 -.283993850E-07  .274804510E-08 -.126732430E-10
  -.149154710E-09 -.169963820E-12  .257481920E-10  .162476770E-09  .221299470E-08
   .206150240E-07 -.943093200E-07  .264543600E-06 -.178591170E-04 -.175662740E-03
  -.132426670E-02  .177371040E-03 -.862227170E-05  .220101240E-05  .744096270E-07
   .386618410E-08  .391659490E-09 -.120133510E-11 -.293210700E-10  .127463650E-10
  -.245817930E-13 -.292260500E-11  .495345800E-12 -.118747690E-09  .145873470E-09
   .576504280E-08  .538202910E-07  .753554410E-06  .164979460E-04 -.900804780E-04
   .833921220E-03  .386358530E-04  .669847290E-05  .509766290E-06 -.826618200E-07
  -.102823180E-07 -.507732700E-09 -.935293810E-10  .526647630E-11  .134314110E-11
 -.211008920E-13
   .305284730E-01  .629345580E-01  .969202330E+00  .150380450E+00 -.128816830E-01
   .318868840E-02 -.288393730E-01 -.167032690E-01 -.213708390E-01 -.975001450E-03
  -.241003660E-02 -.148990850E-01  .498087410E-02  .112523110E-01 -.833553160E-03
   .271806080E-02  .110139560E-03 -.663910390E-05  .294527670E-03  .238447380E-02
   .571401050E-02  .116644420E-03 -.312811370E-03  .220959350E-04 -.195487850E-03
  -.323055660E-06  .917279880E-05  .649346250E-05  .109058690E-03 -.810775480E-03
   .488828020E-02 -.149738080E-04  .456858660E-04 -.366145510E-04 -.284662140E-05
   .396835490E-05  .610348780E-06 -.264629260E-06  .468560640E-05  .298400530E-04
   .183400790E-03  .337216320E-02  .668861920E-02 -.792166930E-03  .216351470E-03
  -.640511640E-04  .138406970E-05 -.130084000E-05 -.328947980E-06 -.259642400E-08
  -.153255750E-07 -.624163590E-07 -.427916200E-05 -.440734460E-06 -.276686550E-03
   .515603350E-03 -.136628860E-01 -.104756430E-03 -.276309460E-03 -.804549720E-05
   .118217760E-05 -.235441520E-07  .976059080E-07  .615181690E-08 -.384606480E-09
   .169516320E-08  .182905890E-08  .128814640E-06  .349217130E-06 -.868699710E-05
   .156900630E-04 -.224634840E-02  .115388320E-02  .980675410E-03  .205565900E-04
   .255073780E-04 -.348243430E-07  .127816010E-06 -.343839900E-08 -.256823370E-08
  -.335312040E-09 -.547664620E-11 -.102297750E-09 -.671112910E-09 -.136561950E-08
  -.316692500E-07  .956332360E-06  .143475860E-05  .113274740E-03  .593192250E-03
   .677549150E-02 -.146043430E-03  .924314600E-04 -.573864240E-05 -.364431700E-06
  -.363221360E-07 -.504627050E-08  .314787800E-09  .135786310E-09  .200581900E-10
   .102404800E-11  .268754230E-11  .294397170E-10  .473002860E-10 -.471652000E-09
  -.164627050E-07 -.361126490E-06  .233135040E-06 -.413028610E-04  .703767600E-03
  -.326038390E-02 -.382564710E-03 -.340014090E-04 -.540543930E-05  .119661210E-06
  -.651152380E-08  .278840400E-08  .118687250E-09  .399658150E-11 -.374854890E-11
 -.783103320E-12
   .137796540E-02 -.315076610E-02 -.525938260E-03 -.141116620E-02  .713625280E-03
   .490660430E-02  .127072730E-01 -.408048050E-03  .168812300E-02  .295814660E-03
  -.111162810E-02  .388081520E-02 -.116705570E-01 -.202256360E-02 -.753852370E-03
  -.263620740E-03 -.209850690E-04  .143324890E-03  .881324600E-04 -.572997090E-03
   .284218680E-02  .455168060E-03  .202260500E-03  .760773870E-04 -.454968560E-05
  -.102841870E-05 -.102319970E-04 -.949972440E-06 -.156540900E-03  .316860760E-03
  -.345960880E-02  .369090860E-03 -.139257470E-03 -.123901010E-04 -.191667520E-05
   .144377370E-05  .155446660E-06  .841796220E-06  .510253840E-05 -.153930530E-04
   .115319860E-03 -.384087360E-02  .363471410E-02  .138757850E-02  .153792670E-03
   .520266480E-04  .243607480E-05  .130182740E-05  .607482340E-07 -.939589150E-08
  -.203728120E-07 -.153584120E-06  .252385120E-05  .109885410E-04  .266763510E-03
   .717150570E-03  .121085610E-01 -.212161260E-03  .232512740E-03 -.182958090E-04
  -.862420520E-06 -.351411000E-06 -.185654540E-07 -.816685030E-08  .191234420E-10
   .379559900E-08 -.116521540E-07  .379260200E-07 -.405704290E-06  .327107330E-05
   .783446950E-04  .240493870E-02  .621706470E-02 -.102243710E-02  .455809360E-04
  -.140545750E-04 -.444916390E-06  .776423160E-07  .878295900E-08  .124818220E-08
   .321274170E-09 -.154878120E-10 -.409111900E-10  .455341470E-09 -.682739490E-09
   .715048870E-07  .833244890E-07 -.301006030E-06 -.264882050E-04  .190925170E-03
   .421211350E-03 -.142327840E-03  .243792920E-04  .662247450E-05  .141106090E-06
   .709767470E-07 -.311761310E-08 -.442983430E-09 -.659656700E-10 -.801442420E-11
   .540246920E-12 -.139550080E-11  .681983930E-11 -.165249900E-09 -.433872950E-09
   .521158020E-08  .243341840E-07  .166738580E-05 -.148248500E-04  .309060530E-03
  -.462453180E-02 -.314237280E-04 -.442438260E-04 -.614219220E-06 -.373992200E-06
  -.454493180E-08 -.208908080E-08  .201018940E-10  .219703830E-10  .463162140E-11
  .670322120E-13
  -.179572800E-02  .170666970E-02 -.113679240E-02 -.869708050E-02 -.188215020E-02
  -.181208780E-02 -.876072190E-02 -.302618370E-02  .167698800E-03  .305941890E-03
   .107517870E-03 -.352421670E-02  .772250360E-02 -.978246310E-03  .505252360E-03
   .338856770E-03  .103352600E-04  .138253670E-03  .264685810E-03  .188505380E-02
   .660407320E-02 -.250363880E-02 -.167859020E-03 -.121793990E-03 -.691245060E-04
  -.373782440E-05 -.402565980E-05 -.231784050E-04 -.131139560E-03  .528891190E-03
  -.778455650E-02 -.182558380E-02 -.269866970E-03 -.131897910E-04  .220152060E-05
   .413713530E-05  .368445470E-06  .650406070E-06  .209759700E-06  .568914110E-05
  -.223998260E-03 -.178129740E-02 -.698342440E-03  .877210180E-03  .467011000E-04
   .228608420E-04  .712475700E-05  .556153960E-08  .220627780E-07 -.142902240E-07
  -.380830910E-07  .256278510E-06  .532011710E-06  .169870740E-04  .141864440E-03
  -.608660480E-03  .885628500E-02  .414194170E-03  .677411220E-04  .177777700E-04
  -.359972080E-06 -.903281210E-07  .200665550E-07 -.137034560E-07 -.532628810E-11
   .618446130E-09 -.599959390E-08 -.345611300E-07  .501743730E-06  .428880010E-05
   .630139750E-04  .161163450E-02  .293434740E-02 -.891716580E-03  .157883630E-04
  -.134630760E-04 -.861531050E-06  .602310550E-08 -.677886040E-08  .334949270E-09
   .530787830E-09  .564199970E-11 -.141172140E-10 -.570324950E-09  .586272380E-08
  -.373786890E-07 -.703709690E-06  .427330080E-05 -.163305400E-03  .450421990E-03
  -.973921830E-02  .192845180E-03 -.934758310E-04 -.440001480E-05  .789181530E-06
  -.129274040E-07  .630748250E-08  .496977610E-09 -.957309590E-10 -.177811460E-10
  -.150667770E-12  .480602200E-12  .307840960E-10 -.890610490E-10 -.641053150E-09
   .622252450E-07 -.216084730E-06  .410573990E-05  .205157490E-04 -.129049620E-02
  -.182968250E-02  .794615550E-03 -.754680220E-04  .987384150E-05 -.555518010E-06
  -.342089260E-07  .862235500E-09 -.535559490E-09 -.174580450E-10  .197412600E-11
 -.104946410E-12
  -.823416830E-02 -.252723790E-01  .123766260E-01  .145951590E-01  .326184700E-02
   .114212510E-01  .113203540E-01 -.920603010E-04  .274819240E-02  .349090800E-03
  -.102349800E-02  .730079550E-02 -.255848350E-01 -.535361760E-02 -.163065960E-02
  -.129564190E-02 -.677144420E-04 -.900070990E-04 -.410993210E-03 -.115141350E-01
  -.433384490E-02  .429149010E-02  .270851150E-03  .287710480E-03  .133081610E-03
   .426344150E-05  .163534610E-04 -.477191470E-05  .124619360E-02 -.209561680E-02
   .386402400E-01  .125194310E-02  .115186160E-02  .985435730E-04  .254119170E-05
  -.152753360E-05 -.596023090E-06 -.233142490E-06  .348321210E-05  .306229630E-04
   .248891550E-03  .103048770E-01  .413667010E-02 -.500788540E-02  .313572350E-04
  -.133158300E-03 -.614545720E-05  .972197260E-06 -.738585030E-07 -.144834540E-08
   .745977930E-07 -.578174240E-06 -.512274150E-05  .984642270E-06 -.875196380E-03
   .284121990E-02 -.515366530E-01 -.143425340E-02 -.688181960E-03 -.402285160E-04
   .214765020E-06 -.178533620E-06 -.983047230E-07  .222997380E-07  .182118370E-08
  -.110936580E-07  .163402320E-07 -.341290860E-07 -.268330550E-05 -.153095550E-04
  -.346308450E-03 -.926640970E-02 -.178340530E-01  .425707120E-02 -.210064900E-03
   .697841040E-04  .243578960E-05 -.186137880E-06  .364049130E-07  .528797680E-09
  -.307290550E-09 -.152738980E-10  .300918470E-09  .100440480E-08 -.733496320E-08
   .167770350E-06  .340521910E-05  .408749110E-05  .709258260E-03 -.210522320E-02
   .598051590E-01  .137937140E-02  .572363140E-03  .211631760E-04 -.679692820E-06
   .315642480E-07  .400324990E-08 -.227557700E-08  .238687370E-09 -.165377150E-10
  -.143333570E-11 -.720016220E-11 -.520472560E-10  .108194060E-08 -.744859230E-08
  -.166132070E-07  .617713890E-07  .631931720E-05  .176741340E-03  .653002690E-02
   .142045530E-01 -.319772630E-02  .759427510E-04 -.347759880E-04 -.847357470E-06
   .162971790E-07  .131931310E-08 -.794281690E-10  .873599890E-10 -.637488540E-11
  .137550850E-11
   .110138830E-02  .389628030E-02  .761776920E-03 -.752670520E-03 -.729725190E-03
   .318928580E-03 -.485146240E-02 -.418872310E-03 -.104729410E-02 -.158058480E-03
   .125236370E-04 -.248043230E-02  .212640850E-03  .978084000E-03 -.143768370E-04
   .198255120E-03  .198703080E-04 -.430257100E-04  .149993690E-03 -.101105450E-02
   .201364900E-02  .393225160E-03  .124697190E-03  .110105760E-04  .355217480E-05
   .689960760E-07  .428289040E-05  .116481340E-04  .179771860E-03  .775636180E-03
   .434334160E-02 -.441623130E-03  .133612100E-03 -.180500470E-04 -.240632760E-06
  -.124209960E-05 -.781968880E-07 -.335079010E-06 -.289417940E-05  .546677230E-05
  -.911923520E-04  .232536870E-02 -.297361470E-02 -.983447030E-03 -.974093050E-04
  -.318574480E-04 -.110628120E-05 -.413369860E-06 -.493837910E-07  .380607560E-08
   .124777010E-07  .713596070E-07 -.137068050E-05 -.533541770E-05 -.178235370E-03
  -.374210200E-03 -.787884750E-02  .110666430E-03 -.138505060E-03  .942706090E-05
   .580975070E-06  .186967630E-06  .489936950E-09  .434385200E-08  .125708540E-09
  -.240874340E-08  .911112590E-08 -.308222020E-07 -.774938820E-07 -.167613870E-05
  -.886508420E-04 -.165256460E-02 -.656431010E-02  .726558630E-03 -.705181220E-04
   .897880760E-05  .288883750E-06 -.569980640E-07 -.288263960E-08 -.218313390E-09
  -.182951720E-09  .547777310E-11  .173706190E-10 -.407865930E-09  .975312030E-09
  -.474823170E-07  .903548720E-07 -.295799990E-06  .290426660E-04 -.403312630E-03
   .430695840E-03  .205978500E-03 -.786897670E-05 -.310393000E-05 -.136128610E-06
  -.455917290E-07  .122521550E-08  .180818670E-09  .327991930E-10  .181950420E-11
  -.247751760E-12  .112241000E-11 -.299827390E-11  .616164070E-10  .753919560E-10
  -.141532540E-07 -.382016140E-07 -.619336420E-06  .148374210E-04  .486976580E-04
   .353110980E-02 -.993608400E-04  .314064500E-04 -.189479110E-05  .270183840E-06
  -.810116020E-08  .175934250E-08  .120573310E-10 -.941583510E-11 -.291791010E-11
 -.373948240E-13
  -.324645970E-03 -.167654950E-02  .709255410E-03  .323702220E-02  .115810500E-02
   .981521030E-03  .283055940E-02 -.723586000E-04 -.792497320E-04 -.175469880E-03
  -.219700530E-03  .148418700E-02 -.351535090E-02 -.650146600E-03 -.163928290E-03
  -.187823410E-03 -.770787990E-05 -.182624830E-04 -.287958820E-03 -.119990590E-02
  -.330284480E-02  .118433820E-02  .606661670E-04  .593246180E-04  .405021650E-04
   .255966540E-05  .158863180E-05  .248332680E-04  .175805990E-03 -.681249600E-03
   .541708900E-02  .108913750E-02  .114591070E-03  .255433420E-04 -.373862970E-05
  -.211185880E-05 -.225011080E-06 -.367855810E-06  .576910900E-06 -.719399790E-05
   .160178370E-03  .134863050E-02  .198245050E-02 -.797467420E-03 -.608857790E-05
  -.183685220E-04 -.489012080E-05  .248210800E-06 -.318592310E-07  .807069200E-08
   .272821410E-07 -.195749910E-06 -.530495280E-06 -.905632620E-05 -.137931810E-03
   .559000750E-03 -.710104040E-02 -.381151920E-03 -.707542730E-04 -.120437820E-04
   .847821030E-06  .909197260E-07 -.689751480E-08  .101071380E-07  .358702280E-10
  -.759499530E-09  .618198730E-08  .300481330E-07 -.230850120E-06 -.244424350E-05
  -.429983650E-04 -.132385150E-02 -.194589290E-02  .692929950E-03 -.115444050E-04
   .111830420E-04  .546289520E-06 -.104017950E-07  .227696440E-08 -.428462750E-09
  -.468265820E-09 -.169779410E-11  .174958000E-10  .380939800E-09 -.539125740E-08
   .347280580E-07  .542593530E-06 -.274091370E-05  .132624510E-03 -.290787270E-03
   .809668830E-02 -.178185880E-03  .680268370E-04  .282131600E-05 -.714058400E-06
   .635509530E-08 -.453724480E-08 -.451539780E-09  .943396230E-10  .962042350E-11
   .738393070E-13  .207758520E-12 -.241037820E-10  .141603120E-09 -.320914240E-09
  -.514614550E-07  .151371620E-06 -.455477440E-05 -.197175490E-04  .929587540E-03
   .841888690E-03 -.643607130E-03  .513706940E-04 -.742595850E-05  .378018660E-06
   .381991570E-07 -.909835440E-09  .396580060E-09  .144046310E-10 -.257938830E-11
  .261454360E-12
   .253190980E-02  .938055310E-02 -.622179270E-02 -.516016240E-02 -.181651190E-02
  -.691222060E-02 -.476979700E-02  .199714410E-02 -.594886310E-03 -.597338420E-04
   .117862450E-02 -.390081070E-02  .174041680E-01  .237334910E-02  .119845920E-02
   .604302540E-03  .346582610E-04  .538976890E-04  .470504450E-03  .785118610E-02
   .404993340E-02 -.335059890E-02  .543812920E-04 -.213391950E-03 -.621554170E-04
  -.433585590E-05 -.127368870E-04 -.186980930E-05 -.980419210E-03  .239447460E-02
  -.304216170E-01 -.127270420E-02 -.840424010E-03 -.892166670E-04  .121513330E-05
   .281458940E-06  .377154150E-06  .117335390E-06 -.417536020E-05 -.229173650E-04
  -.290172580E-03 -.831329450E-02 -.595297950E-02  .395740910E-02 -.108697760E-03
   .109897580E-03  .567696750E-05 -.633002380E-06  .110643530E-06  .161471070E-08
  -.480027450E-07  .536065860E-06  .457319350E-05  .175911660E-05  .750986460E-03
  -.240840900E-02  .421704760E-01  .128620280E-02  .581587230E-03  .366475140E-04
  -.119697760E-05  .722312460E-07  .475840650E-07 -.233988000E-07 -.121541080E-08
   .766087710E-08 -.240965730E-07  .161428080E-07  .151026980E-05  .870314380E-05
   .258081500E-03  .711112460E-02  .123209280E-01 -.346534060E-02  .137880580E-03
  -.549472670E-04 -.210096450E-05  .166217880E-06 -.169063160E-07 -.537280410E-09
   .826059480E-09 -.500158750E-11 -.178357020E-09 -.718844430E-09  .544014240E-08
  -.127225410E-06 -.271536650E-05 -.454192480E-05 -.575763930E-03  .138534140E-02
  -.471183550E-01 -.105574950E-02 -.441460020E-03 -.147721900E-04  .921742600E-06
  -.211473810E-08 -.141661160E-08  .162969970E-08 -.204205180E-09  .140146900E-10
   .139660390E-11  .454923950E-11  .248343110E-10 -.753545110E-09  .656581970E-08
   .161300000E-07  .229679610E-06 -.223795370E-05 -.111239390E-03 -.473247490E-02
  -.861937930E-02  .248586820E-02 -.317009020E-04  .257421280E-04  .628537790E-06
  -.210794620E-07 -.352499850E-08  .140250980E-09 -.683759980E-10  .558793330E-11
 -.168643590E-11
